ply
format ascii 1.0
comment stanford bunny
element vertex 2300
property float x
property float y
property float z
end_header
-288.297	377.592	1059
-286.542	378.305	1061
-284.243	378.305	1061
-282.21	378.662	1062
-279.909	378.662	1062
-278.131	379.375	1064
-275.825	379.375	1064
-273.52	379.375	1064
-271.214	379.375	1064
-268.908	379.375	1064
-266.603	379.375	1064
-263.801	378.662	1062
-261.499	378.662	1062
-258.466	377.592	1059
-256.171	377.592	1059
-253.157	376.523	1056
-250.869	376.523	1056
-248.581	376.523	1056
-246.293	376.523	1056
-243.312	375.453	1053
-241.03	375.453	1053
-239.882	377.236	1058
-237.589	377.236	1058
-237.076	380.088	1066
-234.766	380.088	1066
-232.674	380.445	1067
-230.362	380.445	1067
-227.409	379.375	1064
-225.104	379.375	1064
-222.379	378.662	1062
-220.078	378.662	1062
-216.957	377.236	1058
-214.664	377.236	1058
-211.569	375.81	1054
-209.285	375.81	1054
-206.608	375.096	1052
-204.329	375.096	1052
-201.857	374.74	1051
-199.58	374.74	1051
-197.678	375.453	1053
-195.396	375.453	1053
-193.665	376.523	1056
-191.376	376.523	1056
-189.267	376.879	1057
-186.977	376.879	1057
-184.512	376.523	1056
-182.224	376.523	1056
-179.083	374.74	1051
-176.806	374.74	1051
-173.698	372.957	1046
-171.432	372.957	1046
-168.357	371.174	1041
-166.101	371.174	1041
-163.373	370.105	1038
-161.124	370.105	1038
-158.722	369.748	1037
-156.475	369.748	1037
-154.228	369.748	1037
-151.981	369.748	1037
-149.734	369.748	1037
-147.487	369.748	1037
-145.1	369.392	1036
-142.855	369.392	1036
-140.474	369.035	1035
-138.232	369.035	1035
-135.726	368.322	1033
-133.488	368.322	1033
-130.995	367.609	1031
-128.761	367.609	1031
-126.282	366.896	1029
-124.052	366.896	1029
-121.467	365.826	1026
-119.244	365.826	1026
-116.793	365.113	1024
-114.574	365.113	1024
-112.355	365.113	1024
-110.136	365.113	1024
-108.339	366.539	1028
-106.111	366.539	1028
-103.884	366.539	1028
-101.656	366.539	1028
-99.6223	367.252	1030
-97.3905	367.252	1030
-94.8815	366.183	1027
-92.6561	366.183	1027
-89.9905	364.4	1022
-87.776	364.4	1022
-84.8917	361.547	1014
-82.6945	361.547	1014
-79.9417	359.051	1007
-77.7596	359.051	1007
-75.2774	357.625	1003
-73.1041	357.625	1003
-71.0014	357.982	1004
-68.8259	357.982	1004
-66.9823	359.765	1009
-64.796	359.765	1009
-62.8579	361.191	1013
-60.6628	361.191	1013
-58.641	362.26	1016
-56.4395	362.26	1016
-54.3447	362.974	1018
-52.1389	362.974	1018
-49.933	362.974	1018
-47.7272	362.974	1018
-45.4766	362.617	1017
-43.2729	362.617	1017
-41.0289	362.26	1016
-38.8274	362.26	1016
-36.5898	361.904	1015
-34.3904	361.904	1015
-32.096	360.834	1012
-29.9031	360.834	1012
-27.6829	360.478	1011
-25.4922	360.478	1011
-23.3015	360.478	1011
-21.1108	360.478	1011
-18.9389	360.834	1012
-16.746	360.834	1012
-14.5532	360.834	1012
-12.3603	360.834	1012
-10.1574	360.478	1011
-7.96677	360.478	1011
-5.75895	359.408	1008
-3.57477	359.408	1008
-1.38783	358.695	1006
0.792017	358.695	1006
2.96891	358.338	1005
5.14659	358.338	1005
7.31698	357.982	1004
9.49249	357.982	1004
11.7029	359.051	1007
13.8849	359.051	1007
16.1148	360.121	1010
18.3033	360.121	1010
20.5324	360.834	1012
22.7252	360.834	1012
24.9427	361.191	1013
27.1377	361.191	1013
29.3327	361.191	1013
31.5277	361.191	1013
33.6561	360.478	1011
35.8468	360.478	1011
37.9999	360.121	1010
40.1884	360.121	1010
42.293	359.408	1008
44.4772	359.408	1008
46.6151	359.051	1007
48.7971	359.051	1007
50.9285	358.695	1006
53.1083	358.695	1006
55.2332	358.338	1005
57.4109	358.338	1005
59.5293	357.982	1004
61.7048	357.982	1004
63.9439	358.338	1005
66.1216	358.338	1005
68.2993	358.338	1005
70.4769	358.338	1005
72.6546	358.338	1005
74.8323	358.338	1005
76.8567	357.625	1003
79.0301	357.625	1003
80.9605	356.556	1000
83.1274	356.556	1000
85.1236	355.842	998
87.2861	355.842	998
89.2694	355.129	996
91.4276	355.129	996
93.4918	354.773	995
95.6478	354.773	995
97.8038	354.773	995
99.9598	354.773	995
102.116	354.773	995
104.272	354.773	995
106.214	354.06	993
108.366	354.06	993
110.295	353.347	991
112.442	353.347	991
114.358	352.633	989
116.501	352.633	989
118.644	352.633	989
120.787	352.633	989
123.179	353.347	991
125.326	353.347	991
127.731	354.06	993
129.882	354.06	993
132.034	354.06	993
134.186	354.06	993
136.2	353.703	992
138.35	353.703	992
140.216	352.99	990
142.361	352.99	990
144.214	352.277	988
146.355	352.277	988
148.346	351.92	987
150.484	351.92	987
152.623	351.92	987
154.762	351.92	987
157.059	352.277	988
159.2	352.277	988
161.504	352.633	989
163.647	352.633	989
165.79	352.633	989
167.933	352.633	989
169.732	351.92	987
171.871	351.92	987
173.305	350.494	983
175.435	350.494	983
176.842	349.068	979
178.963	349.068	979
180.715	348.355	977
182.832	348.355	977
184.949	348.355	977
187.066	348.355	977
188.989	347.998	976
191.104	347.998	976
193.021	347.642	975
195.134	347.642	975
196.842	346.929	973
198.95	346.929	973
201.058	346.929	973
203.167	346.929	973
205.697	347.642	975
207.81	347.642	975
210.353	348.355	977
212.47	348.355	977
214.587	348.355	977
216.704	348.355	977
218.373	347.642	975
220.486	347.642	975
222.37	347.285	974
224.481	347.285	974
226.358	346.929	973
228.467	346.929	973
230.575	346.929	973
232.683	346.929	973
235.033	347.285	974
237.144	347.285	974
239.5	347.642	975
241.612	347.642	975
243.475	347.285	974
245.586	347.285	974
247.442	346.929	973
249.55	346.929	973
251.4	346.572	972
253.506	346.572	972
254.823	345.502	969
256.923	345.502	969
258.488	344.789	967
260.583	344.789	967
261.864	343.72	964
263.953	343.72	964
266.041	343.72	964
268.13	343.72	964
270.219	343.72	964
272.308	343.72	964
274.681	344.076	965
276.772	344.076	965
278.863	344.076	965
280.954	344.076	965
283.339	344.433	966
285.432	344.433	966
288.12	345.146	968
290.218	345.146	968
292.919	345.859	970
295.021	345.859	970
297.429	346.215	971
299.533	346.215	971
301.637	346.215	971
303.741	346.215	971
305.215	345.502	969
307.315	345.502	969
308.776	344.789	967
310.871	344.789	967
311.996	343.72	964
314.085	343.72	964
315.518	343.006	962
317.602	343.006	962
319.354	342.65	961
321.437	342.65	961
323.519	342.65	961
325.601	342.65	961
327.343	342.293	960
329.423	342.293	960
331.158	341.937	959
333.236	341.937	959
334.614	341.224	957
336.688	341.224	957
337.7	340.154	954
339.767	340.154	954
341.117	339.441	952
343.18	339.441	952
344.88	339.084	951
346.941	339.084	951
348.635	338.728	950
350.693	338.728	950
352.752	338.728	950
354.81	338.728	950
356.869	338.728	950
358.927	338.728	950
360.226	338.015	948
362.28	338.015	948
362.797	336.588	944
364.842	336.588	944
365.722	335.519	941
367.761	335.519	941
369.014	334.806	939
371.049	334.806	939
373.083	334.806	939
375.118	334.806	939
378.358	335.875	942
380.399	335.875	942
384.064	337.302	946
386.114	337.302	946
389.395	338.371	949
391.451	338.371	949
393.507	338.371	949
395.564	338.371	949
395.944	336.945	945
397.992	336.945	945
398.346	335.519	941
400.385	335.519	941
401.996	335.162	940
404.033	335.162	940
406.502	335.519	941
408.541	335.519	941
411.453	336.232	943
413.496	336.232	943
415.539	336.232	943
417.583	336.232	943
420.071	336.588	944
422.116	336.588	944
424.162	336.588	944
426.207	336.588	944
428.253	336.588	944
430.298	336.588	944
431.886	336.232	943
433.929	336.232	943
435.048	335.519	941
437.087	335.519	941
438.659	335.162	940
440.696	335.162	940
441.791	334.449	938
443.823	334.449	938
444.905	333.736	936
446.934	333.736	936
448.002	333.023	934
450.026	333.023	934
452.05	333.023	934
454.074	333.023	934
456.586	333.379	935
458.612	333.379	935
461.131	333.736	936
463.159	333.736	936
464.69	333.379	935
466.716	333.379	935
467.739	332.666	933
469.761	332.666	933
470.266	331.597	930
472.281	331.597	930
473.786	331.24	929
475.799	331.24	929
477.812	331.24	929
479.825	331.24	929
481.838	331.24	929
483.851	331.24	929
485.864	331.24	929
487.877	331.24	929
489.89	331.24	929
491.903	331.24	929
493.384	330.884	928
495.395	330.884	928
497.406	330.884	928
499.417	330.884	928
503.049	331.953	931
505.066	331.953	931
508.717	333.023	934
510.741	333.023	934
513.863	333.736	936
515.891	333.736	936
517.919	333.736	936
519.948	333.736	936
520.303	332.666	933
522.324	332.666	933
522.098	331.24	929
524.111	331.24	929
522.726	329.101	923
524.726	329.101	923
524.443	327.675	919
526.435	327.675	919
527.276	326.961	917
529.263	326.961	917
530.671	326.605	916
532.655	326.605	916
534.057	326.248	915
536.039	326.248	915
536.258	325.179	912
538.234	325.179	912
537.841	323.752	908
539.808	323.752	908
539.389	322.326	904
541.348	322.326	904
541.504	321.257	901
543.456	321.257	901
545.409	321.257	901
547.361	321.257	901
549.923	321.613	902
551.877	321.613	902
554.446	321.97	903
556.403	321.97	903
558.359	321.97	903
560.316	321.97	903
561.65	321.613	902
563.604	321.613	902
565.559	321.613	902
567.513	321.613	902
569.468	321.613	902
571.422	321.613	902
574.012	321.97	903
575.969	321.97	903
-742.469	393.161	1096
-740.094	393.161	1096
-739.738	394.237	1099
-737.357	394.237	1099
-736.982	395.313	1102
-734.594	395.313	1102
-734.864	396.748	1106
-732.467	396.748	1106
-732.711	398.183	1110
-730.306	398.183	1110
-727.245	397.824	1109
-724.842	397.824	1109
-722.439	397.824	1109
-720.036	397.824	1109
-718.28	398.183	1110
-715.875	398.183	1110
-710.899	396.748	1106
-708.502	396.748	1106
-705.467	396.389	1105
-703.073	396.389	1105
-700.678	396.389	1105
-698.284	396.389	1105
-695.89	396.389	1105
-693.495	396.389	1105
-690.476	396.03	1104
-688.083	396.03	1104
-685.07	395.672	1103
-682.68	395.672	1103
-675.356	392.802	1095
-672.983	392.802	1095
-672.448	393.878	1098
-670.069	393.878	1098
-666.473	393.161	1096
-664.098	393.161	1096
-662.931	393.878	1098
-660.552	393.878	1098
-659.971	394.954	1101
-657.585	394.954	1101
-655.795	395.313	1102
-653.407	395.313	1102
-650.428	394.954	1101
-648.042	394.954	1101
-645.07	394.596	1100
-642.687	394.596	1100
-637.975	393.161	1096
-635.6	393.161	1096
-630.914	391.726	1092
-628.548	391.726	1092
-625.608	391.367	1091
-623.244	391.367	1091
-622.588	392.443	1094
-620.217	392.443	1094
-620.105	393.878	1098
-617.726	393.878	1098
-619.27	396.389	1105
-616.876	396.389	1105
-616.706	397.824	1109
-614.303	397.824	1109
-613.003	398.542	1111
-610.596	398.542	1111
-608.188	398.542	1111
-605.781	398.542	1111
-602.831	398.183	1110
-600.425	398.183	1110
-596.943	397.465	1108
-594.542	397.465	1108
-591.607	397.107	1107
-589.208	397.107	1107
-587.869	397.824	1109
-585.466	397.824	1109
-582.538	397.465	1108
-580.137	397.465	1108
-576.172	396.389	1105
-573.777	396.389	1105
-570.349	395.672	1103
-567.959	395.672	1103
-564.543	394.954	1101
-562.157	394.954	1101
-557.23	393.161	1096
-554.855	393.161	1096
-549.959	391.367	1091
-547.595	391.367	1091
-542.733	389.573	1086
-540.379	389.573	1086
-536.54	388.497	1083
-534.193	388.497	1083
-530.373	387.421	1080
-528.033	387.421	1080
-526.666	388.139	1082
-524.322	388.139	1082
-523.907	389.573	1086
-521.554	389.573	1086
-520.635	390.65	1089
-518.275	390.65	1089
-514.968	389.932	1087
-512.613	389.932	1087
-505.563	386.345	1077
-503.229	386.345	1077
-502.291	387.421	1080
-499.951	387.421	1080
-498.993	388.497	1083
-496.646	388.497	1083
-496.582	390.291	1088
-494.224	390.291	1088
-493.675	391.726	1092
-491.309	391.726	1092
-490.733	393.161	1096
-488.359	393.161	1096
-488.201	394.954	1101
-485.815	394.954	1101
-486.503	397.465	1108
-484.102	397.465	1108
-483.875	399.259	1113
-481.463	399.259	1113
-477.33	397.824	1109
-474.927	397.824	1109
-471.672	397.107	1107
-469.273	397.107	1107
-464.344	394.954	1101
-461.958	394.954	1101
-459.99	395.313	1102
-457.602	395.313	1102
-456.04	396.03	1104
-453.648	396.03	1104
-449.212	394.237	1099
-446.831	394.237	1099
-441.214	391.367	1091
-438.85	391.367	1091
-435.686	390.65	1089
-433.326	390.65	1089
-429.384	389.215	1085
-427.033	389.215	1085
-422.333	387.062	1079
-419.995	387.062	1079
-415.722	385.269	1074
-413.394	385.269	1074
-409.536	383.834	1070
-407.218	383.834	1070
-404.899	383.834	1070
-402.581	383.834	1070
-399.514	383.116	1068
-397.2	383.116	1068
-394.516	382.758	1067
-392.204	382.758	1067
-389.161	382.04	1065
-386.853	382.04	1065
-385.99	383.475	1069
-383.674	383.475	1069
-379.93	382.04	1065
-377.623	382.04	1065
-375.315	382.04	1065
-373.007	382.04	1065
-370.7	382.04	1065
-368.392	382.04	1065
-366.772	382.758	1067
-364.46	382.758	1067
-362.826	383.475	1069
-360.51	383.475	1069
-358.529	383.834	1070
-356.21	383.834	1070
-354.222	384.193	1071
-351.902	384.193	1071
-349.907	384.551	1072
-347.585	384.551	1072
-345.584	384.91	1073
-343.259	384.91	1073
-341.569	385.628	1075
-339.24	385.628	1075
-337.851	386.704	1078
-335.515	386.704	1078
-334.106	387.78	1081
-331.764	387.78	1081
-329.117	387.421	1080
-326.777	387.421	1080
-323.235	385.986	1076
-320.903	385.986	1076
-316.203	383.116	1068
-313.889	383.116	1068
-309.824	380.964	1062
-307.523	380.964	1062
-304.072	379.529	1058
-301.78	379.529	1058
-298.355	378.094	1054
-296.071	378.094	1054
-292.951	377.018	1051
-290.674	377.018	1051
-288.122	376.659	1050
-285.847	376.659	1050
-283.842	377.018	1051
-281.564	377.018	1051
-280.35	378.453	1055
-278.064	378.453	1055
-276.301	379.171	1057
-274.01	379.171	1057
-271.977	379.529	1058
-269.685	379.529	1058
-267.139	379.171	1057
-264.849	379.171	1057
-261.813	378.094	1054
-259.53	378.094	1054
-256.269	376.659	1050
-253.994	376.659	1050
-250.76	375.225	1046
-248.494	375.225	1046
-245.05	373.431	1041
-242.794	373.431	1041
-240.308	373.072	1040
-238.054	373.072	1040
-236.481	374.148	1043
-234.221	374.148	1043
-233.295	376.301	1049
-231.022	376.301	1049
-229.403	377.377	1052
-227.124	377.377	1052
-225.485	378.453	1055
-223.199	378.453	1055
-220.285	377.377	1052
-218.006	377.377	1052
-215.521	377.018	1051
-213.244	377.018	1051
-210.364	375.942	1048
-208.093	375.942	1048
-205.626	375.583	1047
-203.357	375.583	1047
-200.897	375.225	1046
-198.63	375.225	1046
-196.551	375.583	1047
-194.283	375.583	1047
-192.381	376.301	1049
-190.108	376.301	1049
-187.656	375.942	1048
-185.385	375.942	1048
-182.59	374.866	1045
-180.325	374.866	1045
-176.868	372.355	1038
-174.619	372.355	1038
-171.706	370.92	1034
-169.465	370.92	1034
-166.578	369.485	1030
-164.346	369.485	1030
-161.799	368.768	1028
-159.572	368.768	1028
-157.191	368.409	1027
-154.966	368.409	1027
-152.592	368.05	1026
-150.369	368.05	1026
-148.29	368.409	1027
-146.064	368.409	1027
-143.839	368.409	1027
-141.614	368.409	1027
-139.388	368.409	1027
-137.163	368.409	1027
-134.806	368.05	1026
-132.583	368.05	1026
-130.233	367.691	1025
-128.012	367.691	1025
-125.423	366.615	1022
-123.208	366.615	1022
-120.639	365.539	1019
-118.431	365.539	1019
-116.108	365.18	1018
-113.903	365.18	1018
-111.806	365.539	1019
-109.598	365.539	1019
-107.707	366.615	1022
-105.492	366.615	1022
-103.581	367.691	1025
-101.36	367.691	1025
-99.1387	367.691	1025
-96.9177	367.691	1025
-94.5119	366.974	1023
-92.2952	366.974	1023
-89.7263	365.539	1019
-87.5183	365.539	1019
-84.808	363.387	1013
-82.613	363.387	1013
-79.9417	361.234	1007
-77.7596	361.234	1007
-75.2774	359.799	1003
-73.1041	359.799	1003
-70.9307	359.799	1003
-68.7574	359.799	1003
-66.7832	360.876	1006
-64.6033	360.876	1006
-62.6097	361.952	1009
-60.4233	361.952	1009
-58.3524	362.669	1011
-56.1617	362.669	1011
-54.0244	363.028	1012
-51.8316	363.028	1012
-49.5897	362.669	1011
-47.399	362.669	1011
-45.1636	362.311	1010
-42.9751	362.311	1010
-40.7462	361.952	1009
-38.5598	361.952	1009
-36.2654	360.876	1006
-34.0855	360.876	1006
-31.8422	360.158	1004
-29.6667	360.158	1004
-27.4364	359.441	1002
-25.2653	359.441	1002
-23.1171	359.799	1003
-20.9438	359.799	1003
-18.8079	360.517	1005
-16.6302	360.517	1005
-14.4669	360.876	1006
-12.2871	360.876	1006
-10.1072	360.876	1006
-7.92737	360.876	1006
-5.73609	360.158	1004
-3.56058	360.158	1004
-1.38093	359.082	1001
0.78808	359.082	1001
2.95118	358.365	999
5.11586	358.365	999
7.28783	358.723	1000
9.45467	358.723	1000
11.6564	359.799	1003
13.8297	359.799	1003
16.0509	360.876	1006
18.2308	360.876	1006
20.4512	361.593	1008
22.6354	361.593	1008
24.8196	361.593	1008
27.0037	361.593	1008
29.13	360.876	1006
31.3099	360.876	1006
33.4231	360.158	1004
35.5986	360.158	1004
37.7365	359.799	1003
39.9099	359.799	1003
42.0413	359.441	1002
44.2124	359.441	1002
46.3836	359.441	1002
48.5548	359.441	1002
50.6753	359.082	1001
52.8443	359.082	1001
54.9584	358.723	1000
57.1252	358.723	1000
59.2328	358.365	999
61.3975	358.365	999
63.4985	358.006	998
65.661	358.006	998
67.8915	358.365	999
70.0562	358.365	999
72.1486	358.006	998
74.3111	358.006	998
76.397	357.647	997
78.5573	357.647	997
80.5557	356.93	995
82.7117	356.93	995
84.7825	356.571	994
86.9363	356.571	994
88.9109	355.853	992
91.0604	355.853	992
93.116	355.495	991
95.2633	355.495	991
97.3123	355.136	990
99.4575	355.136	990
101.5	354.777	989
103.643	354.777	989
105.465	353.701	986
107.602	353.701	986
109.404	352.625	983
111.534	352.625	983
113.549	352.266	982
115.677	352.266	982
117.924	352.625	983
120.054	352.625	983
122.557	353.701	986
124.694	353.701	986
127.088	354.419	988
129.228	354.419	988
131.502	354.777	989
133.645	354.777	989
135.651	354.419	988
137.792	354.419	988
139.649	353.701	986
141.786	353.701	986
143.63	352.984	984
145.763	352.984	984
147.744	352.625	983
149.874	352.625	983
151.85	352.266	982
153.978	352.266	982
156.264	352.625	983
158.395	352.625	983
160.688	352.984	984
162.82	352.984	984
164.952	352.984	984
167.084	352.984	984
168.873	352.266	982
171	352.266	982
172.423	350.831	978
174.542	350.831	978
176.119	349.755	975
178.232	349.755	975
179.975	349.038	973
182.083	349.038	973
183.813	348.32	971
185.917	348.32	971
187.827	347.962	970
189.929	347.962	970
191.833	347.603	969
193.933	347.603	969
195.83	347.244	968
197.928	347.244	968
200.025	347.244	968
202.123	347.244	968
204.853	348.32	971
206.957	348.32	971
209.492	349.038	973
211.6	349.038	973
213.708	349.038	973
215.817	349.038	973
217.701	348.679	972
219.807	348.679	972
221.457	347.962	970
223.559	347.962	970
225.428	347.603	969
227.527	347.603	969
229.864	347.962	970
231.966	347.962	970
234.068	347.962	970
236.17	347.962	970
238.026	347.603	969
240.126	347.603	969
241.725	346.885	967
243.821	346.885	967
245.407	346.168	965
247.498	346.168	965
249.331	345.809	964
251.42	345.809	964
253.245	345.451	963
255.332	345.451	963
256.884	344.733	961
258.966	344.733	961
260.505	344.016	959
262.583	344.016	959
264.661	344.016	959
266.74	344.016	959
268.818	344.016	959
270.896	344.016	959
272.974	344.016	959
275.052	344.016	959
277.13	344.016	959
279.208	344.016	959
281.286	344.016	959
283.364	344.016	959
285.739	344.374	960
287.819	344.374	960
290.503	345.092	962
292.588	345.092	962
295.285	345.809	964
297.374	345.809	964
299.773	346.168	965
301.864	346.168	965
303.955	346.168	965
306.046	346.168	965
307.499	345.451	963
309.586	345.451	963
311.025	344.733	961
313.107	344.733	961
314.534	344.016	959
316.612	344.016	959
318.025	343.298	957
320.099	343.298	957
322.172	343.298	957
324.246	343.298	957
325.638	342.581	955
327.707	342.581	955
329.086	341.863	953
331.151	341.863	953
332.516	341.146	951
334.577	341.146	951
335.576	340.07	948
337.63	340.07	948
338.968	339.352	946
341.017	339.352	946
343.067	339.352	946
345.117	339.352	946
347.167	339.352	946
349.217	339.352	946
351.267	339.352	946
353.316	339.352	946
354.991	338.993	945
357.038	338.993	945
357.946	337.917	942
359.987	337.917	942
360.491	336.482	938
362.523	336.482	938
363.39	335.406	935
365.416	335.406	935
366.656	334.689	933
368.678	334.689	933
371.494	335.406	935
373.52	335.406	935
376.751	336.482	938
378.784	336.482	938
382.44	337.917	942
384.481	337.917	942
387.343	338.635	944
389.388	338.635	944
390.605	337.917	942
392.646	337.917	942
393.011	336.482	938
395.043	336.482	938
395.806	335.406	935
397.832	335.406	935
399.858	335.406	935
401.884	335.406	935
404.342	335.765	936
406.37	335.765	936
409.271	336.482	938
411.303	336.482	938
413.777	336.841	939
415.811	336.841	939
417.846	336.841	939
419.881	336.841	939
421.915	336.841	939
423.95	336.841	939
425.985	336.841	939
428.019	336.841	939
429.596	336.482	938
431.629	336.482	938
433.199	336.124	937
435.229	336.124	937
436.326	335.406	935
438.352	335.406	935
439.436	334.689	933
441.458	334.689	933
442.529	333.971	931
444.546	333.971	931
446.084	333.613	930
448.099	333.613	930
449.63	333.254	929
451.643	333.254	929
454.144	333.613	930
456.16	333.613	930
458.667	333.971	931
460.685	333.971	931
462.205	333.613	930
464.22	333.613	930
464.731	332.536	927
466.74	332.536	927
467.232	331.46	924
469.234	331.46	924
469.706	330.384	921
471.702	330.384	921
473.697	330.384	921
475.693	330.384	921
477.689	330.384	921
479.684	330.384	921
482.203	330.743	922
484.201	330.743	922
486.726	331.102	923
488.726	331.102	923
490.726	331.102	923
492.726	331.102	923
494.726	331.102	923
496.726	331.102	923
499.807	331.819	925
501.811	331.819	925
504.905	332.536	927
506.913	332.536	927
510.02	333.254	929
512.033	333.254	929
513.493	332.895	928
515.503	332.895	928
515.841	331.819	925
517.846	331.819	925
518.164	330.743	922
520.162	330.743	922
519.894	329.308	918
521.883	329.308	918
522.161	328.232	915
524.143	328.232	915
524.976	327.514	913
526.954	327.514	913
528.353	327.156	912
530.329	327.156	912
531.138	326.438	910
533.11	326.438	910
533.318	325.362	907
535.283	325.362	907
534.879	323.927	903
536.836	323.927	903
536.406	322.492	899
538.354	322.492	899
539.1	321.775	897
541.044	321.775	897
542.382	321.416	896
544.323	321.416	896
546.265	321.416	896
548.206	321.416	896
550.762	321.775	897
552.706	321.775	897
555.267	322.133	898
557.213	322.133	898
559.159	322.133	898
561.105	322.133	898
563.051	322.133	898
564.997	322.133	898
567.574	322.492	899
569.522	322.492	899
572.105	322.851	900
574.056	322.851	900
-740.086	393.01	1089
-742.469	395.537	1096
-740.094	395.537	1096
-739.738	396.619	1099
-737.357	396.619	1099
-736.982	397.702	1102
-734.594	397.702	1102
-734.864	399.145	1106
-732.467	399.145	1106
-732.711	400.589	1110
-730.306	400.589	1110
-727.245	400.228	1109
-724.842	400.228	1109
-722.439	400.228	1109
-720.036	400.228	1109
-718.28	400.589	1110
-715.875	400.589	1110
-710.899	399.145	1106
-708.502	399.145	1106
-705.467	398.785	1105
-703.073	398.785	1105
-700.678	398.785	1105
-698.284	398.785	1105
-695.89	398.785	1105
-693.495	398.785	1105
-690.476	398.424	1104
-688.083	398.424	1104
-685.07	398.063	1103
-682.68	398.063	1103
-675.356	395.176	1095
-672.983	395.176	1095
-672.448	396.258	1098
-670.069	396.258	1098
-666.473	395.537	1096
-664.098	395.537	1096
-662.931	396.258	1098
-660.552	396.258	1098
-659.971	397.341	1101
-657.585	397.341	1101
-655.795	397.702	1102
-653.407	397.702	1102
-650.428	397.341	1101
-648.042	397.341	1101
-645.07	396.98	1100
-642.687	396.98	1100
-637.975	395.537	1096
-635.6	395.537	1096
-630.914	394.093	1092
-628.548	394.093	1092
-625.608	393.732	1091
-623.244	393.732	1091
-622.588	394.815	1094
-620.217	394.815	1094
-620.105	396.258	1098
-617.726	396.258	1098
-619.27	398.785	1105
-616.876	398.785	1105
-616.706	400.228	1109
-614.303	400.228	1109
-613.003	400.95	1111
-610.596	400.95	1111
-608.188	400.95	1111
-605.781	400.95	1111
-602.831	400.589	1110
-600.425	400.589	1110
-596.943	399.867	1108
-594.542	399.867	1108
-591.607	399.506	1107
-589.208	399.506	1107
-587.869	400.228	1109
-585.466	400.228	1109
-582.538	399.867	1108
-580.137	399.867	1108
-576.172	398.785	1105
-573.777	398.785	1105
-570.349	398.063	1103
-567.959	398.063	1103
-564.543	397.341	1101
-562.157	397.341	1101
-557.23	395.537	1096
-554.855	395.537	1096
-549.959	393.732	1091
-547.595	393.732	1091
-542.733	391.928	1086
-540.379	391.928	1086
-536.54	390.845	1083
-534.193	390.845	1083
-530.373	389.762	1080
-528.033	389.762	1080
-526.666	390.484	1082
-524.322	390.484	1082
-523.907	391.928	1086
-521.554	391.928	1086
-520.635	393.01	1089
-518.275	393.01	1089
-514.968	392.289	1087
-512.613	392.289	1087
-505.563	388.68	1077
-503.229	388.68	1077
-502.291	389.762	1080
-499.951	389.762	1080
-498.993	390.845	1083
-496.646	390.845	1083
-496.582	392.649	1088
-494.224	392.649	1088
-493.675	394.093	1092
-491.309	394.093	1092
-490.733	395.537	1096
-488.359	395.537	1096
-488.201	397.341	1101
-485.815	397.341	1101
-486.503	399.867	1108
-484.102	399.867	1108
-483.875	401.672	1113
-481.463	401.672	1113
-477.33	400.228	1109
-474.927	400.228	1109
-471.672	399.506	1107
-469.273	399.506	1107
-464.344	397.341	1101
-461.958	397.341	1101
-459.99	397.702	1102
-457.602	397.702	1102
-456.04	398.424	1104
-453.648	398.424	1104
-449.212	396.619	1099
-446.831	396.619	1099
-441.214	393.732	1091
-438.85	393.732	1091
-435.686	393.01	1089
-433.326	393.01	1089
-429.384	391.567	1085
-427.033	391.567	1085
-422.333	389.401	1079
-419.995	389.401	1079
-415.722	387.597	1074
-413.394	387.597	1074
-409.536	386.153	1070
-407.218	386.153	1070
-404.899	386.153	1070
-402.581	386.153	1070
-399.514	385.432	1068
-397.2	385.432	1068
-394.516	385.071	1067
-392.204	385.071	1067
-389.161	384.349	1065
-386.853	384.349	1065
-385.99	385.792	1069
-383.674	385.792	1069
-379.93	384.349	1065
-377.623	384.349	1065
-375.315	384.349	1065
-373.007	384.349	1065
-370.7	384.349	1065
-368.392	384.349	1065
-366.772	385.071	1067
-364.46	385.071	1067
-362.826	385.792	1069
-360.51	385.792	1069
-358.529	386.153	1070
-356.21	386.153	1070
-354.222	386.514	1071
-351.902	386.514	1071
-349.907	386.875	1072
-347.585	386.875	1072
-345.584	387.236	1073
-343.259	387.236	1073
-341.569	387.958	1075
-339.24	387.958	1075
-337.851	389.04	1078
-335.515	389.04	1078
-334.106	390.123	1081
-331.764	390.123	1081
-329.117	389.762	1080
-326.777	389.762	1080
-323.235	388.319	1076
-320.903	388.319	1076
-316.203	385.432	1068
-313.889	385.432	1068
-309.824	383.266	1062
-307.523	383.266	1062
-304.072	381.823	1058
-301.78	381.823	1058
-298.355	380.379	1054
-296.071	380.379	1054
-292.951	379.296	1051
-290.674	379.296	1051
-288.122	378.936	1050
-285.847	378.936	1050
-283.842	379.296	1051
-281.564	379.296	1051
-280.35	380.74	1055
-278.064	380.74	1055
-276.301	381.462	1057
-274.01	381.462	1057
-271.977	381.823	1058
-269.685	381.823	1058
-267.139	381.462	1057
-264.849	381.462	1057
-261.813	380.379	1054
-259.53	380.379	1054
-256.269	378.936	1050
-253.994	378.936	1050
-250.76	377.492	1046
-248.494	377.492	1046
-245.05	375.688	1041
-242.794	375.688	1041
-240.308	375.327	1040
-238.054	375.327	1040
-236.481	376.409	1043
-234.221	376.409	1043
-233.295	378.575	1049
-231.022	378.575	1049
-229.403	379.657	1052
-227.124	379.657	1052
-225.485	380.74	1055
-223.199	380.74	1055
-220.285	379.657	1052
-218.006	379.657	1052
-215.521	379.296	1051
-213.244	379.296	1051
-210.364	378.214	1048
-208.093	378.214	1048
-205.626	377.853	1047
-203.357	377.853	1047
-200.897	377.492	1046
-198.63	377.492	1046
-196.551	377.853	1047
-194.283	377.853	1047
-192.381	378.575	1049
-190.108	378.575	1049
-187.656	378.214	1048
-185.385	378.214	1048
-182.59	377.131	1045
-180.325	377.131	1045
-176.868	374.605	1038
-174.619	374.605	1038
-171.706	373.161	1034
-169.465	373.161	1034
-166.578	371.718	1030
-164.346	371.718	1030
-161.799	370.996	1028
-159.572	370.996	1028
-157.191	370.635	1027
-154.966	370.635	1027
-152.592	370.274	1026
-150.369	370.274	1026
-148.29	370.635	1027
-146.064	370.635	1027
-143.839	370.635	1027
-141.614	370.635	1027
-139.388	370.635	1027
-137.163	370.635	1027
-134.806	370.274	1026
-132.583	370.274	1026
-130.233	369.913	1025
-128.012	369.913	1025
-125.423	368.831	1022
-123.208	368.831	1022
-120.639	367.748	1019
-118.431	367.748	1019
-116.108	367.387	1018
-113.903	367.387	1018
-111.806	367.748	1019
-109.598	367.748	1019
-107.707	368.831	1022
-105.492	368.831	1022
-103.581	369.913	1025
-101.36	369.913	1025
-99.1387	369.913	1025
-96.9177	369.913	1025
-94.5119	369.191	1023
-92.2952	369.191	1023
-89.7263	367.748	1019
-87.5183	367.748	1019
-84.808	365.583	1013
-82.613	365.583	1013
-79.9417	363.417	1007
-77.7596	363.417	1007
-75.2774	361.974	1003
-73.1041	361.974	1003
-70.9307	361.974	1003
-68.7574	361.974	1003
-66.7832	363.056	1006
-64.6033	363.056	1006
-62.6097	364.139	1009
-60.4233	364.139	1009
-58.3524	364.861	1011
-56.1617	364.861	1011
-54.0244	365.222	1012
-51.8316	365.222	1012
-49.5897	364.861	1011
-47.399	364.861	1011
-45.1636	364.5	1010
-42.9751	364.5	1010
-40.7462	364.139	1009
-38.5598	364.139	1009
-36.2654	363.056	1006
-34.0855	363.056	1006
-31.8422	362.335	1004
-29.6667	362.335	1004
-27.4364	361.613	1002
-25.2653	361.613	1002
-23.1171	361.974	1003
-20.9438	361.974	1003
-18.8079	362.695	1005
-16.6302	362.695	1005
-14.4669	363.056	1006
-12.2871	363.056	1006
-10.1072	363.056	1006
-7.92737	363.056	1006
-5.73609	362.335	1004
-3.56058	362.335	1004
-1.38093	361.252	1001
0.78808	361.252	1001
2.95118	360.53	999
5.11586	360.53	999
7.28783	360.891	1000
9.45467	360.891	1000
11.6564	361.974	1003
13.8297	361.974	1003
16.0509	363.056	1006
18.2308	363.056	1006
20.4512	363.778	1008
22.6354	363.778	1008
24.8196	363.778	1008
27.0037	363.778	1008
29.13	363.056	1006
31.3099	363.056	1006
33.4231	362.335	1004
35.5986	362.335	1004
37.7365	361.974	1003
39.9099	361.974	1003
42.0413	361.613	1002
44.2124	361.613	1002
46.3836	361.613	1002
48.5548	361.613	1002
50.6753	361.252	1001
52.8443	361.252	1001
54.9584	360.891	1000
57.1252	360.891	1000
59.2328	360.53	999
61.3975	360.53	999
63.4985	360.169	998
65.661	360.169	998
67.8915	360.53	999
70.0562	360.53	999
72.1486	360.169	998
74.3111	360.169	998
76.397	359.808	997
78.5573	359.808	997
80.5557	359.087	995
82.7117	359.087	995
84.7825	358.726	994
86.9363	358.726	994
88.9109	358.004	992
91.0604	358.004	992
93.116	357.643	991
95.2633	357.643	991
97.3123	357.282	990
99.4575	357.282	990
101.5	356.921	989
103.643	356.921	989
105.465	355.839	986
107.602	355.839	986
109.404	354.756	983
111.534	354.756	983
113.549	354.395	982
115.677	354.395	982
117.924	354.756	983
120.054	354.756	983
122.557	355.839	986
124.694	355.839	986
127.088	356.56	988
129.228	356.56	988
131.502	356.921	989
133.645	356.921	989
135.651	356.56	988
137.792	356.56	988
139.649	355.839	986
141.786	355.839	986
143.63	355.117	984
145.763	355.117	984
147.744	354.756	983
149.874	354.756	983
151.85	354.395	982
153.978	354.395	982
156.264	354.756	983
158.395	354.756	983
160.688	355.117	984
162.82	355.117	984
164.952	355.117	984
167.084	355.117	984
168.873	354.395	982
171	354.395	982
172.423	352.951	978
174.542	352.951	978
176.119	351.869	975
178.232	351.869	975
179.975	351.147	973
182.083	351.147	973
183.813	350.425	971
185.917	350.425	971
187.827	350.064	970
189.929	350.064	970
191.833	349.703	969
193.933	349.703	969
195.83	349.342	968
197.928	349.342	968
200.025	349.342	968
202.123	349.342	968
204.853	350.425	971
206.957	350.425	971
209.492	351.147	973
211.6	351.147	973
213.708	351.147	973
215.817	351.147	973
217.701	350.786	972
219.807	350.786	972
221.457	350.064	970
223.559	350.064	970
225.428	349.703	969
227.527	349.703	969
229.864	350.064	970
231.966	350.064	970
234.068	350.064	970
236.17	350.064	970
238.026	349.703	969
240.126	349.703	969
241.725	348.982	967
243.821	348.982	967
245.407	348.26	965
247.498	348.26	965
249.331	347.899	964
251.42	347.899	964
253.245	347.538	963
255.332	347.538	963
256.884	346.816	961
258.966	346.816	961
260.505	346.094	959
262.583	346.094	959
264.661	346.094	959
266.74	346.094	959
268.818	346.094	959
270.896	346.094	959
272.974	346.094	959
275.052	346.094	959
277.13	346.094	959
279.208	346.094	959
281.286	346.094	959
283.364	346.094	959
285.739	346.455	960
287.819	346.455	960
290.503	347.177	962
292.588	347.177	962
295.285	347.899	964
297.374	347.899	964
299.773	348.26	965
301.864	348.26	965
303.955	348.26	965
306.046	348.26	965
307.499	347.538	963
309.586	347.538	963
311.025	346.816	961
313.107	346.816	961
314.534	346.094	959
316.612	346.094	959
318.025	345.373	957
320.099	345.373	957
322.172	345.373	957
324.246	345.373	957
325.638	344.651	955
327.707	344.651	955
329.086	343.929	953
331.151	343.929	953
332.516	343.207	951
334.577	343.207	951
335.576	342.125	948
337.63	342.125	948
338.968	341.403	946
341.017	341.403	946
343.067	341.403	946
345.117	341.403	946
347.167	341.403	946
349.217	341.403	946
351.267	341.403	946
353.316	341.403	946
354.991	341.042	945
357.038	341.042	945
357.946	339.959	942
359.987	339.959	942
360.491	338.516	938
362.523	338.516	938
363.39	337.433	935
365.416	337.433	935
366.656	336.711	933
368.678	336.711	933
371.494	337.433	935
373.52	337.433	935
376.751	338.516	938
378.784	338.516	938
382.44	339.959	942
384.481	339.959	942
387.343	340.681	944
389.388	340.681	944
390.605	339.959	942
392.646	339.959	942
393.011	338.516	938
395.043	338.516	938
395.806	337.433	935
397.832	337.433	935
399.858	337.433	935
401.884	337.433	935
404.342	337.794	936
406.37	337.794	936
409.271	338.516	938
411.303	338.516	938
413.777	338.877	939
415.811	338.877	939
417.846	338.877	939
419.881	338.877	939
421.915	338.877	939
423.95	338.877	939
425.985	338.877	939
428.019	338.877	939
429.596	338.516	938
431.629	338.516	938
433.199	338.155	937
435.229	338.155	937
436.326	337.433	935
438.352	337.433	935
439.436	336.711	933
441.458	336.711	933
442.529	335.99	931
444.546	335.99	931
446.084	335.629	930
448.099	335.629	930
449.63	335.268	929
451.643	335.268	929
454.144	335.629	930
456.16	335.629	930
458.667	335.99	931
460.685	335.99	931
462.205	335.629	930
464.22	335.629	930
464.731	334.546	927
466.74	334.546	927
467.232	333.463	924
469.234	333.463	924
469.706	332.381	921
471.702	332.381	921
473.697	332.381	921
475.693	332.381	921
477.689	332.381	921
479.684	332.381	921
482.203	332.742	922
484.201	332.742	922
486.726	333.102	923
488.726	333.102	923
490.726	333.102	923
492.726	333.102	923
494.726	333.102	923
496.726	333.102	923
499.807	333.824	925
501.811	333.824	925
504.905	334.546	927
506.913	334.546	927
510.02	335.268	929
512.033	335.268	929
513.493	334.907	928
515.503	334.907	928
515.841	333.824	925
517.846	333.824	925
518.164	332.742	922
520.162	332.742	922
519.894	331.298	918
521.883	331.298	918
522.161	330.215	915
524.143	330.215	915
524.976	329.493	913
526.954	329.493	913
528.353	329.133	912
530.329	329.133	912
531.138	328.411	910
533.11	328.411	910
533.318	327.328	907
535.283	327.328	907
534.879	325.885	903
536.836	325.885	903
536.406	324.441	899
538.354	324.441	899
539.1	323.719	897
541.044	323.719	897
542.382	323.358	896
544.323	323.358	896
546.265	323.358	896
548.206	323.358	896
550.762	323.719	897
552.706	323.719	897
555.267	324.08	898
557.213	324.08	898
559.159	324.08	898
561.105	324.08	898
563.051	324.08	898
564.997	324.08	898
567.574	324.441	899
569.522	324.441	899
572.105	324.802	900
574.056	324.802	900
573.446	323.358	896
-742.446	395.371	1089
-740.086	395.371	1089
-740.436	396.823	1093
-738.068	396.823	1093
-737.046	397.549	1095
-734.673	397.549	1095
-732.969	397.912	1096
-730.594	397.912	1096
-728.884	398.275	1097
-726.507	398.275	1097
-724.13	398.275	1097
-721.753	398.275	1097
-718.72	397.912	1096
-716.345	397.912	1096
-711.365	396.46	1092
-708.999	396.46	1092
-705.985	396.097	1091
-703.621	396.097	1091
-701.257	396.097	1091
-698.893	396.097	1091
-698.444	397.186	1094
-696.074	397.186	1094
-694.337	397.549	1095
-691.965	397.549	1095
-690.222	397.912	1096
-687.847	397.912	1096
-684.847	397.549	1095
-682.474	397.549	1095
-677.617	396.097	1091
-675.253	396.097	1091
-671.655	395.371	1089
-669.296	395.371	1089
-667.548	395.734	1090
-665.186	395.734	1090
-663.433	396.097	1091
-661.069	396.097	1091
-659.308	396.46	1092
-656.942	396.46	1092
-655.175	396.823	1093
-652.807	396.823	1093
-650.439	396.823	1093
-648.07	396.823	1093
-645.702	396.823	1093
-643.334	396.823	1093
-639.206	395.734	1090
-636.844	395.734	1090
-632.736	394.645	1087
-630.381	394.645	1087
-626.87	393.919	1085
-624.519	393.919	1085
-622.741	394.282	1086
-620.388	394.282	1086
-619.742	395.371	1089
-617.382	395.371	1089
-618.411	397.549	1095
-616.039	397.549	1095
-616.468	399.365	1100
-614.084	399.365	1100
-613.925	400.817	1104
-611.533	400.817	1104
-609.693	401.18	1105
-607.298	401.18	1105
-604.357	400.817	1104
-601.964	400.817	1104
-599.029	400.454	1103
-596.639	400.454	1103
-593.171	399.728	1101
-590.786	399.728	1101
-586.262	398.275	1097
-583.885	398.275	1097
-581.508	398.275	1097
-579.131	398.275	1097
-576.228	397.912	1096
-573.854	397.912	1096
-570.957	397.549	1095
-568.585	397.549	1095
-566.212	397.549	1095
-563.839	397.549	1095
-559.928	396.46	1092
-557.562	396.46	1092
-553.162	395.008	1088
-550.805	395.008	1088
-545.423	392.83	1082
-543.078	392.83	1082
-538.735	391.377	1078
-536.399	391.377	1078
-532.081	389.925	1074
-529.754	389.925	1074
-526.445	389.199	1072
-524.122	389.199	1072
-521.312	388.836	1071
-518.991	388.836	1071
-517.636	389.562	1073
-515.311	389.562	1073
-512.507	389.199	1072
-510.185	389.199	1072
-507.862	389.199	1072
-505.539	389.199	1072
-503.216	389.199	1072
-500.893	389.199	1072
-499.5	389.925	1074
-497.173	389.925	1074
-498.071	392.466	1081
-495.729	392.466	1081
-495.212	393.919	1085
-492.861	393.919	1085
-491.867	395.008	1088
-489.509	395.008	1088
-487.599	395.371	1089
-485.24	395.371	1089
-482.436	395.008	1088
-480.079	395.008	1088
-478.16	395.371	1089
-475.801	395.371	1089
-465.616	388.836	1071
-463.295	388.836	1071
-460.544	388.473	1070
-458.225	388.473	1070
-461.872	393.556	1084
-459.523	393.556	1084
-456.752	393.193	1083
-454.406	393.193	1083
-451.224	392.466	1081
-448.882	392.466	1081
-446.953	392.83	1082
-444.608	392.83	1082
-438.585	389.562	1073
-436.26	389.562	1073
-436.766	392.103	1080
-434.425	392.103	1080
-431.685	391.74	1079
-429.347	391.74	1079
-425.822	390.651	1076
-423.49	390.651	1076
-419.202	388.836	1071
-416.881	388.836	1071
-412.625	387.021	1066
-410.315	387.021	1066
-407.24	386.294	1064
-404.934	386.294	1064
-401.872	385.568	1062
-399.571	385.568	1062
-396.895	385.205	1061
-394.596	385.205	1061
-391.558	384.479	1059
-389.263	384.479	1059
-386.603	384.116	1058
-384.311	384.116	1058
-380.574	382.664	1054
-378.29	382.664	1054
-375.649	382.301	1053
-373.368	382.301	1053
-371.438	382.664	1054
-369.155	382.664	1054
-367.567	383.39	1056
-365.279	383.39	1056
-363.678	384.116	1058
-361.385	384.116	1058
-359.432	384.479	1059
-357.138	384.479	1059
-355.178	384.842	1060
-352.881	384.842	1060
-350.915	385.205	1061
-348.616	385.205	1061
-346.643	385.568	1062
-344.342	385.568	1062
-342.363	385.931	1063
-340.06	385.931	1063
-338.074	386.294	1064
-335.769	386.294	1064
-334.09	387.021	1066
-331.78	387.021	1066
-329.779	387.384	1067
-327.467	387.384	1067
-325.765	388.11	1069
-323.448	388.11	1069
-321.132	388.11	1069
-318.816	388.11	1069
-313.242	384.116	1058
-310.95	384.116	1058
-307.782	383.027	1055
-305.496	383.027	1055
-302.061	381.575	1051
-299.783	381.575	1051
-296.374	380.122	1047
-294.105	380.122	1047
-290.721	378.67	1043
-288.461	378.67	1043
-286.201	378.67	1043
-283.941	378.67	1043
-282.221	379.396	1045
-279.957	379.396	1045
-278.756	380.849	1049
-276.483	380.849	1049
-274.994	381.938	1052
-272.714	381.938	1052
-270.692	382.301	1053
-268.41	382.301	1053
-265.623	381.575	1051
-263.346	381.575	1051
-260.075	380.122	1047
-257.806	380.122	1047
-254.317	378.307	1042
-252.059	378.307	1042
-248.842	376.855	1038
-246.593	376.855	1038
-243.638	375.766	1035
-241.395	375.766	1035
-238.921	375.403	1034
-236.681	375.403	1034
-234.667	375.766	1035
-232.424	375.766	1035
-229.959	375.403	1034
-227.719	375.403	1034
-226.132	376.492	1037
-223.885	376.492	1037
-222.28	377.581	1040
-220.026	377.581	1040
-217.772	377.581	1040
-215.519	377.581	1040
-213.265	377.581	1040
-211.012	377.581	1040
-208.959	377.944	1041
-206.703	377.944	1041
-204.251	377.581	1040
-201.998	377.581	1040
-199.744	377.581	1040
-197.491	377.581	1040
-195.237	377.581	1040
-192.984	377.581	1040
-190.73	377.581	1040
-188.477	377.581	1040
-185.865	376.855	1038
-183.616	376.855	1038
-180.843	375.766	1035
-178.6	375.766	1035
-175.505	373.951	1030
-173.273	373.951	1030
-170.543	372.861	1027
-168.318	372.861	1027
-165.284	371.046	1022
-163.07	371.046	1022
-160.54	370.32	1020
-158.33	370.32	1020
-155.661	369.231	1017
-153.457	369.231	1017
-151.105	368.868	1016
-148.903	368.868	1016
-146.846	369.231	1017
-144.642	369.231	1017
-142.719	369.957	1019
-140.511	369.957	1019
-138.438	370.32	1020
-136.228	370.32	1020
-134.018	370.32	1020
-131.808	370.32	1020
-129.471	369.957	1019
-127.263	369.957	1019
-124.809	369.231	1017
-122.605	369.231	1017
-120.047	368.142	1014
-117.849	368.142	1014
-115.424	367.415	1012
-113.231	367.415	1012
-111.148	367.779	1013
-108.953	367.779	1013
-106.864	368.142	1014
-104.666	368.142	1014
-102.671	368.868	1016
-100.47	368.868	1016
-98.4617	369.594	1018
-96.2558	369.594	1018
-93.9576	369.231	1017
-91.7539	369.231	1017
-89.2861	368.142	1014
-87.0889	368.142	1014
-84.5568	366.689	1010
-82.3683	366.689	1010
-79.7829	364.874	1005
-77.6052	364.874	1005
-75.2774	364.148	1003
-73.1041	364.148	1003
-70.86	363.785	1002
-68.6888	363.785	1002
-66.6504	364.511	1004
-64.4749	364.511	1004
-62.4856	365.6	1007
-60.3035	365.6	1007
-58.1792	365.963	1008
-55.9951	365.963	1008
-53.7575	365.6	1007
-51.5755	365.6	1007
-49.3444	365.237	1006
-47.1646	365.237	1006
-44.94	364.874	1005
-42.7623	364.874	1005
-40.5443	364.511	1004
-38.3688	364.511	1004
-36.0851	363.422	1001
-33.9161	363.422	1001
-31.6837	362.696	999
-29.519	362.696	999
-27.3269	362.333	998
-25.1644	362.333	998
-23.0019	362.333	998
-20.8394	362.333	998
-18.6956	362.696	999
-16.5309	362.696	999
-14.395	363.422	1001
-12.226	363.422	1001
-10.057	363.422	1001
-7.88796	363.422	1001
-5.70753	362.696	999
-3.54285	362.696	999
-1.37541	361.97	997
0.784931	361.97	997
2.93937	361.243	995
5.09538	361.243	995
7.25868	361.607	996
9.41685	361.607	996
11.6099	362.696	999
13.7746	362.696	999
15.9871	363.785	1002
18.1583	363.785	1002
20.37	364.511	1004
22.5456	364.511	1004
24.6964	364.148	1003
26.8698	364.148	1003
28.9563	363.059	1000
31.1231	363.059	1000
33.2234	362.333	998
35.3859	362.333	998
37.5108	361.97	997
39.6711	361.97	997
41.8315	361.97	997
43.9918	361.97	997
46.1522	361.97	997
48.3125	361.97	997
50.4222	361.607	996
52.5804	361.607	996
54.6287	360.88	994
56.7825	360.88	994
58.877	360.517	993
61.0287	360.517	993
63.1168	360.154	992
65.2663	360.154	992
67.4158	360.154	992
69.5653	360.154	992
71.6425	359.791	991
73.7899	359.791	991
75.9372	359.791	991
78.0845	359.791	991
80.07	359.065	989
82.213	359.065	989
84.2707	358.702	988
86.4115	358.702	988
88.4628	358.339	987
90.6014	358.339	987
92.6461	357.976	986
94.7826	357.976	986
96.8209	357.613	985
98.9552	357.613	985
100.884	356.887	983
103.014	356.887	983
104.716	355.435	979
106.838	355.435	979
108.625	354.345	976
110.74	354.345	976
112.624	353.619	974
114.734	353.619	974
117.085	354.345	976
119.199	354.345	976
121.563	355.071	978
123.682	355.071	978
126.187	356.161	981
128.313	356.161	981
130.571	356.524	982
132.699	356.524	982
134.827	356.524	982
136.955	356.524	982
138.8	355.798	980
140.923	355.798	980
142.901	355.435	979
145.022	355.435	979
146.843	354.708	977
148.96	354.708	977
150.922	354.345	976
153.037	354.345	976
155.152	354.345	976
157.267	354.345	976
159.708	355.071	978
161.827	355.071	978
163.779	354.708	977
165.896	354.708	977
167.669	353.982	975
169.781	353.982	975
171.189	352.53	971
173.293	352.53	971
175.036	351.804	969
177.135	351.804	969
178.68	350.715	966
180.773	350.715	966
182.677	350.352	965
184.768	350.352	965
186.666	349.989	964
188.754	349.989	964
190.645	349.626	963
192.732	349.626	963
194.819	349.626	963
196.905	349.626	963
199.405	350.352	965
201.496	350.352	965
204.22	351.441	968
206.318	351.441	968
208.846	352.167	970
210.948	352.167	970
213.049	352.167	970
215.151	352.167	970
217.029	351.804	969
219.129	351.804	969
221	351.441	968
223.098	351.441	968
224.963	351.078	967
227.058	351.078	967
229.153	351.078	967
231.249	351.078	967
233.103	350.715	966
235.196	350.715	966
236.798	349.989	964
238.886	349.989	964
240.225	348.899	961
242.308	348.899	961
243.627	347.81	958
245.703	347.81	958
247.52	347.447	957
249.594	347.447	957
251.668	347.447	957
253.741	347.447	957
255.28	346.721	955
257.35	346.721	955
259.147	346.358	954
261.214	346.358	954
263.006	345.995	953
265.071	345.995	953
267.136	345.995	953
269.201	345.995	953
271.266	345.995	953
273.331	345.995	953
275.107	345.632	952
277.17	345.632	952
278.939	345.269	951
281	345.269	951
283.06	345.269	951
285.121	345.269	951
287.786	345.995	953
289.851	345.995	953
292.528	346.721	955
294.598	346.721	955
297.288	347.447	957
299.362	347.447	957
301.751	347.81	958
303.826	347.81	958
305.902	347.81	958
307.978	347.81	958
309.73	347.447	957
311.804	347.447	957
313.222	346.721	955
315.291	346.721	955
317.028	346.358	954
319.095	346.358	954
320.489	345.632	952
322.552	345.632	952
323.933	344.906	950
325.991	344.906	950
327.014	343.817	947
329.066	343.817	947
330.419	343.091	945
332.466	343.091	945
333.452	342.001	942
335.493	342.001	942
337.176	341.638	941
339.215	341.638	941
340.891	341.275	940
342.928	341.275	940
344.965	341.275	940
347.002	341.275	940
349.039	341.275	940
351.075	341.275	940
352.361	340.549	938
354.393	340.549	938
355.286	339.46	935
357.312	339.46	935
357.801	338.008	931
359.818	338.008	931
360.669	336.919	928
362.68	336.919	928
364.691	336.919	928
366.702	336.919	928
369.507	337.645	930
371.523	337.645	930
375.144	339.097	934
377.168	339.097	934
380.004	339.823	936
382.032	339.823	936
384.471	340.186	937
386.501	340.186	937
387.287	339.097	934
389.311	339.097	934
390.078	338.008	931
392.095	338.008	931
392.843	336.919	928
394.854	336.919	928
396.864	336.919	928
398.875	336.919	928
402.182	338.008	931
404.199	338.008	931
406.653	338.371	932
408.673	338.371	932
411.133	338.734	933
413.154	338.734	933
415.176	338.734	933
417.198	338.734	933
418.77	338.371	932
420.79	338.371	932
423.263	338.734	933
425.284	338.734	933
427.306	338.734	933
429.328	338.734	933
430.887	338.371	932
432.907	338.371	932
433.993	337.645	930
436.008	337.645	930
437.552	337.282	929
439.565	337.282	929
440.627	336.555	927
442.636	336.555	927
443.685	335.829	925
445.69	335.829	925
447.21	335.466	924
449.212	335.466	924
451.214	335.466	924
453.217	335.466	924
455.711	335.829	925
457.716	335.829	925
459.223	335.466	924
461.225	335.466	924
461.723	334.377	921
463.719	334.377	921
464.198	333.288	918
466.187	333.288	918
467.156	332.562	916
469.141	332.562	916
470.611	332.199	915
472.594	332.199	915
474.577	332.199	915
476.559	332.199	915
479.065	332.562	916
481.05	332.562	916
483.035	332.562	916
485.02	332.562	916
487.004	332.562	916
488.989	332.562	916
490.974	332.562	916
492.959	332.562	916
495.484	332.925	917
497.471	332.925	917
500.547	333.651	919
502.539	333.651	919
505.079	334.014	920
507.073	334.014	920
509.066	334.014	920
511.06	334.014	920
511.38	332.925	917
513.367	332.925	917
514.23	332.199	915
516.213	332.199	915
517.063	331.473	913
519.041	331.473	913
519.878	330.747	911
521.852	330.747	911
523.251	330.383	910
525.223	330.383	910
526.036	329.657	908
528.003	329.657	908
528.804	328.931	906
530.767	328.931	906
531.554	328.205	904
533.513	328.205	904
533.102	326.753	900
535.052	326.753	900
535.213	325.664	897
537.156	325.664	897
537.297	324.575	894
539.234	324.575	894
539.961	323.848	892
541.893	323.848	892
543.826	323.848	892
545.759	323.848	892
547.692	323.848	892
549.625	323.848	892
552.176	324.211	893
554.111	324.211	893
556.046	324.211	893
557.981	324.211	893
560.543	324.575	894
562.48	324.575	894
565.048	324.938	895
566.988	324.938	895
569.563	325.301	896
571.504	325.301	896
578.566	328.205	904
-734.547	392.253	1074
-742.446	397.732	1089
-740.086	397.732	1089
-740.436	399.193	1093
-738.068	399.193	1093
-737.046	399.923	1095
-734.673	399.923	1095
-732.969	400.288	1096
-730.594	400.288	1096
-728.884	400.653	1097
-726.507	400.653	1097
-724.13	400.653	1097
-721.753	400.653	1097
-718.72	400.288	1096
-716.345	400.288	1096
-711.365	398.827	1092
-708.999	398.827	1092
-705.985	398.462	1091
-703.621	398.462	1091
-701.257	398.462	1091
-698.893	398.462	1091
-698.444	399.558	1094
-696.074	399.558	1094
-694.337	399.923	1095
-691.965	399.923	1095
-690.222	400.288	1096
-687.847	400.288	1096
-684.847	399.923	1095
-682.474	399.923	1095
-677.617	398.462	1091
-675.253	398.462	1091
-671.655	397.732	1089
-669.296	397.732	1089
-667.548	398.097	1090
-665.186	398.097	1090
-663.433	398.462	1091
-661.069	398.462	1091
-659.308	398.827	1092
-656.942	398.827	1092
-655.175	399.193	1093
-652.807	399.193	1093
-650.439	399.193	1093
-648.07	399.193	1093
-645.702	399.193	1093
-643.334	399.193	1093
-639.206	398.097	1090
-636.844	398.097	1090
-632.736	397.001	1087
-630.381	397.001	1087
-626.87	396.271	1085
